0.485971,0.0240263,-0.557625
0.509584,0.0221131,-0.56292
0.470793,0.0747264,-0.549149
0.415935,0.0987099,-0.405916
0.481536,0.0436206,-0.555163
0.278406,0.0579329,-0.507397
0.833962,0.0360552,-0.644755
0.804395,0.142012,-0.615403
0.25946,-0.0493049,-1.39054
0.828133,0.0760274,-0.636413
0.673939,0.154529,-0.562805
0.614614,0.164272,-0.591793
0.806582,0.0472734,-0.63749
0.435153,0.0871218,-0.540504
0.487487,0.0750038,-0.553194
0.549641,0.0294476,-0.574951
0.534248,0.0821781,-0.565298
0.486446,0.190688,-0.399304
0.489325,0.180035,-0.381675
0.471141,0.0722464,-0.55063
0.412339,0.142528,-0.415171
0.499783,0.174967,-0.376795
0.587424,0.139394,-0.385193
0.525549,0.105225,-0.561525
0.540617,0.17452,-0.31135
0.324021,0.277899,-0.487823
0.38771,0.233856,-0.421112
0.410377,0.106524,-0.404205
0.28877,0.0706724,-0.507592
0.420177,0.110808,-0.365039
-0.273892,0.0124571,-1.22803
0.465391,0.22294,-0.38076
0.214271,-0.0561183,-1.23512
0.507421,0.144914,-0.477912
0.486169,0.04226,-0.556782
0.423896,0.0823681,-0.454984
0.447793,0.0799562,-0.543354
0.901089,-0.00890766,-0.705035
0.660692,0.107975,-0.483697
0.583401,0.138597,-0.396544
0.584831,0.167355,-0.55949
-0.335748,0.0596738,-0.121299
-0.328851,0.0331645,-0.0675501
-0.339367,0.0330757,-0.0982674
0.687572,0.165853,-0.5691
0.828793,0.0598232,-0.642666
0.491489,0.173871,-0.366272
0.462604,0.186931,-0.392393
0.58162,0.142347,-0.455005
0.559622,0.139918,-0.473331
0.285169,0.246958,-0.500201
0.682593,0.135495,-0.493715
0.618589,0.0712006,-0.586838
0.782692,0.069832,-0.628384
0.820178,0.0919054,-0.636838
0.668472,0.123339,-0.488523
0.355106,0.362824,-0.538513
0.459469,0.132311,-0.42495
-0.320824,0.000178482,-0.0263476
-0.311056,-0.0527447,-0.0183241
-0.309335,0.0106685,-0.00634634
-0.328545,-0.0495757,-0.0673162
-0.321357,-0.0342359,-0.0308643
0.378378,0.232507,-0.447936
0.464931,0.225247,-0.384119
0.635237,0.149078,-0.584249
0.415963,0.0847448,-0.444301
0.311843,0.250578,-0.488103
0.296177,0.233293,-0.496612
0.550969,0.0720324,-0.571561
0.48556,0.0426245,-0.558371
0.547801,0.137484,-0.465607
0.418356,0.0834332,-0.441134
0.591282,0.138864,-0.385486
0.0956962,0.0358956,-0.466117
0.183198,0.104316,-0.475551
0.182286,0.0656278,-0.483959
0.203206,0.0505696,-0.491936
0.25776,0.0954261,-0.496624
0.14725,0.0556554,-0.477975
-0.0697185,0.242054,-0.414307
0.218638,0.0560685,-0.494294
0.655701,0.116338,-0.461377
0.538686,0.0118188,-0.57685
0.620008,0.142678,-0.402275
0.569709,0.145766,-0.565848
0.677909,0.187863,-0.432987
0.382967,0.148918,-0.400591
0.688575,0.155148,-0.537029
-0.151851,0.103773,-0.373861
-0.312275,-0.0542006,-0.0319857
-0.388824,-0.0297301,-0.099893
-0.251058,0.190752,-0.0274918
-0.341786,0.0820013,-0.149279
-0.320734,-0.056343,-0.0295549
0.825884,0.059586,-0.641788
0.655011,0.122182,-0.477197
0.638279,0.0648041,-0.593314
0.141858,0.0203378,-0.479534
0.103742,0.119335,-0.459327
0.130756,0.0732793,-0.470098
0.0997554,0.0623198,-0.466442
0.655597,0.113389,-0.496525
0.168084,0.161816,-0.489518
0.603309,0.130541,-0.370449
0.535121,0.135086,-0.423139
0.587487,0.167189,-0.570352
0.782914,0.0732835,-0.627342
0.720256,0.1403,-0.448944
-0.338747,0.00949383,-0.0883944
-0.305211,0.00561863,-0.102569
0.685134,0.136545,-0.49325
0.436711,0.0778416,-0.445113
0.468778,0.145456,-0.391497
0.688582,0.173916,-0.445818
0.585134,0.160785,-0.583528
0.498094,0.130991,-0.361122
0.447523,0.164129,-0.382456
0.45456,0.139246,-0.397024
0.427455,0.079145,-0.4414
0.580362,0.141959,-0.461806
0.418279,0.0991649,-0.412924
0.454971,0.160598,-0.387156
0.60664,0.14705,-0.46541
0.583596,0.162789,-0.576421
0.363558,0.0674349,-0.524443
0.461323,0.0701528,-0.547237
0.445844,0.0812389,-0.442373
0.462034,-0.0189247,-0.556774
0.374609,0.15232,-0.419054
0.626398,0.153016,-0.578365
0.556205,0.148962,-0.50474
0.626104,0.149809,-0.417436
0.707137,0.180578,-0.451355
-0.253456,0.145591,-0.127759
-0.329138,-0.0121658,-0.057024
-0.347547,-0.0526571,-0.147673
-0.339586,0.0612553,-0.120374
-0.339428,-0.0393026,-0.117333
-0.324105,0.00279706,-0.0387672
0.231727,0.0553575,-0.496181
0.47272,0.153173,-0.480464
-0.317515,-0.0346583,-0.0162291
-0.341416,-0.046791,-0.125662
0.460363,0.125313,-0.450787
0.500463,0.127812,-0.427729
0.414454,0.0989309,-0.407118
0.310834,0.106623,0.432105
0.168203,-0.0484429,0.577384
-0.219416,0.0516052,0.958332
0.348113,0.0695725,0.472827
-0.587752,0.216608,0.199871
0.535389,0.101346,-0.562498
0.59033,0.0200732,-0.587852
0.435073,0.138461,-0.395442
0.48239,0.207132,-0.428878
0.454502,0.101236,-0.441689
0.49971,0.187494,-0.396392
0.609176,0.232842,-0.583395
0.455432,0.135031,-0.417699
0.428919,0.019115,-0.547727
0.269617,0.171642,-0.498669
0.279442,0.0738495,-0.505046
0.231938,0.0552898,-0.496519
0.514785,0.0695425,-0.5648
0.572079,0.0569618,-0.576811
0.535184,0.0815076,-0.564062
0.26666,0.0240533,-0.508729
0.269967,0.104628,-0.498999
0.268624,0.20292,-0.496317
0.549991,0.160937,-0.57893
0.508862,0.0780389,-0.557318
-0.253398,0.213214,0.0230047
-0.303786,0.0555738,0.035223
0.409331,0.106982,-0.403348
0.343267,0.0175462,-0.528457
0.598981,0.155537,-0.533434
0.454881,0.161422,-0.38924
0.482721,0.170659,-0.394332
0.639808,0.143992,-0.457208
0.644442,0.148617,-0.514305
0.525781,-0.00503738,-0.244452
0.408459,0.129689,-0.405857
-0.265752,0.187524,-0.354981
-0.274643,0.151036,-0.213161
-0.172511,-0.0308429,-0.873389
0.412936,0.100034,-0.418433
0.435684,0.142231,-0.371318
0.413623,0.0998021,-0.410526
0.305676,0.0658258,-0.512429
0.472066,0.0716599,-0.551764
0.418466,0.138218,-0.401183
0.548939,0.140498,-0.475606
0.561732,0.143227,-0.451422
0.502764,0.135844,-0.348227
0.567989,0.142454,-0.481645
0.490218,0.148632,-0.377806
0.461954,0.139947,-0.407056
0.453011,0.162853,-0.388577
0.423701,0.0960338,-0.412121
-0.347167,0.0617397,-0.132891
-0.32399,0.12599,-0.249796
-0.320076,0.104167,-0.0233754
-0.236289,0.182634,-0.0324535
-0.276289,0.172654,-0.293179
-0.353059,-0.0316756,-0.0474027
-0.327518,-0.0440711,-0.0693304
-0.350772,-0.0525417,-0.147252
-0.340929,-0.0074743,-0.14107
-0.362306,0.133478,-0.255202
-0.244346,0.208128,-0.0578771
0.172384,0.0177105,-0.485796
0.564636,0.145609,-0.454486
0.305808,0.0653948,-0.51215
0.597944,0.125035,-0.359095
0.561603,0.145692,-0.401375
0.502466,0.147307,-0.483287
0.5009,0.148142,-0.48819
-0.261096,0.142002,-0.151231
-0.339064,0.0490467,-0.112333
-0.371823,-0.0026249,-0.2931
-0.341315,-0.0376542,-0.128386
-0.327602,-0.0351662,-0.0476281
-0.340284,0.0636205,-0.132524
0.470253,0.10241,-0.548837
0.410804,0.101469,-0.419997
0.29977,0.0151086,-0.522476
0.316182,0.0637806,-0.515052
0.971762,-0.0442654,-0.711188
0.425109,0.148857,-0.374396
0.464418,0.184514,-0.38686
0.414986,0.099696,-0.407578
0.422117,0.0960867,-0.4123
0.552667,0.137847,-0.407236
0.0126385,0.283588,-0.451961
-0.329107,-0.0161786,-0.0580332
0.555431,0.139984,-0.401183
0.46349,0.165601,-0.391355
0.450032,0.0769606,-0.432791
0.446731,0.0795474,-0.442152
0.454287,0.111399,-0.43908
0.414323,0.0965964,-0.418447
0.448549,0.183658,-0.37834
0.457298,0.133325,-0.41174
0.568558,0.129571,-0.429324
0.491437,0.139047,-0.354368
0.604494,0.15369,-0.531433
0.56738,0.143668,-0.470289
-0.467009,-0.0319594,-0.811747
-0.407798,-0.0321444,-0.846239
-0.166663,0.115634,-0.391091
-0.194874,0.207157,-0.364978
0.488482,0.0734544,-0.5527
0.549292,0.0318164,-0.575598
0.554309,0.138954,-0.455899
0.423462,0.0806609,-0.535477
0.482252,0.0751531,-0.552369
0.480302,0.059424,-0.553349
0.585971,0.176084,-0.568209
0.525082,0.0893076,-0.557742
0.407481,0.0790886,-0.535655
0.609562,0.0724697,-0.583477
0.589869,0.0203809,-0.585527
0.723034,0.194499,-0.464243
0.611448,0.129387,-0.367607
0.739228,0.226252,-0.523395
0.741338,0.233615,-0.550158
0.358372,-0.0279855,-0.554076
1.13682,0.0128417,0.599127
-0.580306,-0.0111928,-1.58197
-0.22122,-0.0242139,-1.13401
-0.25207,0.0177686,-0.403855
0.125697,0.0502084,-0.471822
0.446429,0.148128,-0.534563
0.57852,0.132054,-0.384096
0.425194,0.0804935,-0.442185
0.447359,0.0798403,-0.544242
0.434814,0.0867026,-0.540386
0.36017,0.0323583,-0.525711
0.375193,0.0275905,-0.533591
0.531154,0.0217679,-0.570051
0.61163,0.0900762,-0.581534
0.555323,0.0611073,-0.572794
0.423672,0.104288,-0.535232
0.472282,0.0715427,-0.55087
0.454664,0.202266,-0.38329
0.46268,0.139054,-0.420783
0.463778,0.186108,-0.389759
0.597552,0.0716175,-0.58126
0.460629,0.139951,-0.445778
0.4198,0.0969371,-0.416057
0.442549,0.134625,-0.39022
0.188517,-0.327899,1.1564
0.550692,0.192269,-0.333951
0.454534,0.161792,-0.38893
0.466043,0.104315,-0.409767
-0.268758,-0.0343995,-0.0436791
-0.32844,0.0358558,-0.0552267
0.50072,0.165027,-0.359678
0.583799,0.13962,-0.398795
-0.307225,0.117906,-0.224962
0.340248,0.0803161,-0.519157
0.555291,0.142562,-0.468993
0.453848,0.130649,-0.42235
0.464121,0.112133,-0.430935
0.566738,0.139484,-0.460021
0.461997,0.139381,-0.406694
0.439933,0.146173,-0.387689
-0.0950177,-0.0360667,-1.81367
0.408561,0.102814,-0.412088
0.550222,0.142283,-0.47334
0.439957,0.0777887,-0.444919
0.420659,0.136756,-0.399857
0.40552,0.105058,-0.42214
0.347002,0.0174165,-0.522672
0.427005,0.0798964,-0.442881
0.435087,0.0784931,-0.44698
0.462619,0.16138,-0.492423
0.5551,0.0621661,-0.576542
0.511648,0.107066,-0.555715
0.349463,0.0728753,-0.52093
0.563121,0.029138,-0.580579
0.447383,0.079459,-0.543089
0.430884,0.0192611,-0.546307
0.437513,0.145119,-0.454174
0.426633,0.141428,-0.376341
0.468923,0.1525,-0.479396
0.647145,0.14908,-0.514014
0.277764,0.253379,-0.533382
0.455374,0.201848,-0.382621
0.621226,0.135722,-0.435227
0.456576,0.201263,-0.384648
0.563902,0.15997,-0.570495
0.565152,0.148637,-0.497775
0.501649,0.133515,-0.366471
0.470979,0.1021,-0.546297
0.594199,0.209479,-0.656133
0.426343,0.141773,-0.376345
0.562002,0.144417,-0.481235
0.539534,0.150852,-0.486218
0.334916,0.269626,-0.480733
-0.339401,-0.0543057,-0.134137
-0.33711,-0.00627058,-0.107469
-0.327393,-0.0636338,-0.0690247
-0.339293,0.0490048,-0.134786
-0.312904,-0.0706188,-0.0171153
-0.34558,-0.0188969,-0.142882
-0.346108,-0.0078979,0.00467922
-0.326253,0.0346251,-0.0517827
-0.340938,0.129759,-0.250982
-0.132472,0.146221,-0.36601
-0.272972,0.145075,-0.153956
0.438171,0.144039,-0.453772
0.201398,0.0173998,-0.494795
0.249537,0.0149672,-0.458478
0.190599,0.0610062,-0.485139
0.299672,0.239555,-0.497792
0.525722,0.0646665,-0.565121
0.564735,0.159396,-0.570395
0.659887,0.141429,-0.496078
0.565117,0.150209,-0.502128
-0.242527,0.0980531,-0.361288
-0.264135,0.127423,-0.338158
-0.173186,0.101516,-0.417267
0.25634,0.0915958,-0.496507
0.167005,0.110343,-0.474555
0.162087,0.0999446,-0.474454
0.194315,0.0702872,-0.485469
0.204649,0.0547357,-0.490291
-0.0534303,0.260004,-0.410585
0.253803,0.104574,-0.502626
0.0993373,0.0617094,-0.465498
0.562251,0.144776,-0.453091
0.249852,0.040597,-0.501635
0.177553,0.0391382,-0.485689
0.447856,0.164705,-0.380792
0.497948,0.132182,-0.363163
0.463645,0.0233604,-0.554107
0.427894,0.140641,-0.399038
0.50004,0.0149859,-0.567485
0.294853,0.0266991,-0.514762
0.164859,0.160517,-0.488727
0.217417,0.129894,-0.483346
0.138051,0.0573819,-0.47504
0.704382,0.197986,-0.471539
0.170885,0.097068,-0.474825
-0.332719,0.00304807,-0.0945977
-0.330272,-0.05559,-0.0582473
-0.543851,0.0422768,0.036295
0.526441,0.0788236,-0.562856
0.449306,0.0858906,-0.4424
0.511849,0.141424,-0.481255
0.643532,-0.0542697,-0.602242
0.691679,0.171266,-0.435184
0.55702,0.0183047,-0.577758
0.604928,0.0309896,-0.588349
0.287573,0.0256819,-0.512632
0.182869,0.0651967,-0.482904
0.181908,0.0685045,-0.482899
0.138785,0.047042,-0.475441
0.484788,0.189258,-0.39874
0.270421,0.155077,-0.50243
0.269013,0.206092,-0.497691
-0.495263,0.0021144,-1.47811
0.303421,0.0709168,-0.511271
0.247932,0.0248571,-0.502501
-0.324766,0.0218681,-0.0527282
-0.315578,0.0143926,-0.00331383
-0.33369,0.0446389,-0.0654246
-0.348163,0.0200043,-0.136172
0.421817,0.142688,-0.400546
0.45646,0.200395,-0.382807
0.396224,0.249429,-0.403256
0.490317,0.179962,-0.383104
0.572378,0.136214,-0.44485
0.454092,0.163096,-0.391254
0.592,0.275108,-0.444025
0.564981,0.144792,-0.562011
0.506848,0.182696,-0.343384
0.536333,0.130516,-0.407533
0.609386,0.154853,-0.54401
0.755022,0.100918,-0.50789
0.543002,0.143284,-0.48806
0.528042,0.150647,-0.496789
-0.0572075,0.205886,-0.331095
-0.163721,0.151097,-0.327526
-0.15259,0.0728624,-0.377597
0.672597,0.139755,-0.498981
0.663942,0.131797,-0.494705
0.719317,0.190331,-0.457584
0.450695,0.135037,-0.427453
0.664848,0.130904,-0.507534
0.605547,0.147882,-0.521834
0.681251,0.133809,-0.503022
0.72312,0.140836,-0.455329
0.611528,0.182897,-0.399797
0.690725,0.141716,-0.502391
0.408247,0.106867,-0.407423
0.68467,0.120576,-0.520633
0.508059,0.175618,-0.331315
0.4813,0.133822,-0.388391
0.554529,0.159023,-0.567531
0.516215,0.195432,-0.355732
0.416596,0.0995708,-0.416124
0.426202,0.128238,-0.387428
-0.337719,0.0402247,-0.10107
-0.337543,0.0566403,-0.0996587
-0.341242,-0.00997878,-0.122314
-0.344212,-0.0143196,-0.121779
0.445549,0.0783966,-0.439807
0.349962,-0.0189823,-0.543123
-0.0056186,-0.0377555,-0.937956
0.446166,0.147883,-0.534078
0.25263,0.0190236,-0.506096
0.135746,-0.0537594,-1.10234
0.286826,0.0256546,-0.513703
0.501393,0.0737113,-0.558099
0.294704,0.0265344,-0.515221
0.566041,0.145282,-0.451279
0.182468,0.0330319,-0.487957
0.408979,0.117448,-0.404542
0.501279,0.185878,-0.351016
0.577158,0.146358,-0.469636
0.435022,0.140627,-0.37298
0.418501,0.0832942,-0.439813
0.458777,0.135195,-0.420642
0.38039,0.151096,-0.406131
-0.283471,0.161684,-0.225629
-0.141354,0.149676,-0.374366
0.576398,0.145407,-0.468471
0.418139,0.0835828,-0.441112
0.461203,0.141522,-0.409779
0.618884,0.154834,-0.562079
0.348291,0.29706,-0.538823
0.434123,0.139911,-0.377921
0.387875,0.223089,-0.423479
0.456229,0.108957,-0.422328
-0.058314,0.149007,-0.401865
-0.266322,0.0551499,-0.411721
-0.175541,0.0133325,-0.440205
0.263076,0.153551,-0.502342
-0.172282,0.0547503,-0.431735
-0.339252,0.0422826,-0.105587
-0.237931,0.13065,-0.319123
-0.338595,-0.0257495,-0.113853
-0.345889,-0.0369535,-0.132338
-0.332831,-0.0246363,-0.0974561
-0.33363,0.00295398,-0.0716042
-0.462162,0.0274745,-0.082196
-0.332729,0.0267061,-0.0910435
-0.34076,-0.023919,-0.126364
0.209823,0.0750092,0.513434
0.0724273,-0.165754,0.530356
0.107091,-0.0779099,0.537534
0.0663001,-0.179548,0.52524
0.146797,-0.180411,0.520369
0.148114,-0.187069,0.527589
0.135571,-0.165876,0.513396
0.0841218,-0.161424,0.529395
0.0658622,-0.174745,0.534864
0.067018,-0.17669,0.531047
0.217172,0.0824026,0.462689
0.215768,0.151092,0.519988
0.0530167,0.108301,0.617198
0.147441,0.133717,0.546492
0.0832518,-0.132525,0.533007
0.149744,-0.132966,0.527163
0.098594,-0.0944382,0.536462
0.0713795,0.0967237,0.596789
0.15088,-0.133747,0.528618
0.118861,-0.161438,0.521217
0.0862523,-0.155762,0.529561
0.0671603,-0.182036,0.5333
0.0612086,-0.177636,0.506798
0.0430845,0.158594,0.657049
0.0810425,0.152201,0.594534
0.164847,0.0171441,0.537651
0.140115,0.0328462,1.18294
0.115403,-0.140669,0.524676
0.0992255,-0.133319,0.530916
0.067393,-0.178459,0.545226
0.0639595,-0.145288,0.525512
0.103209,-0.154214,0.525681
0.141787,-0.174735,0.504422
-0.046554,-0.237274,0.741222
0.21479,0.11504,0.506469
0.206591,0.0816832,0.485897
0.219949,0.0473452,0.553244
0.0354307,0.099717,0.610932
0.498401,-0.2487,1.09471
0.150677,-0.0429448,0.528805
0.0751237,-0.139305,0.54158
0.0648735,-0.170508,0.529551
0.14593,0.133787,0.544041
0.216521,0.102051,0.509103
0.0748055,-0.13083,0.53966
0.498516,-0.247612,1.09383
0.107788,-0.0776436,0.537555
0.409473,-0.322326,1.10779
0.224815,0.1206,0.517138
0.0360436,0.098968,0.607928
0.147489,0.0274306,0.537586
0.150589,0.132336,0.559718
0.0607605,0.105142,0.602279
0.111513,-0.11299,0.531524
0.480374,-0.246653,1.10133
0.0719012,0.0154024,0.571657
0.0811002,-0.131355,0.53278
0.071651,-0.157508,0.585772
0.108367,-0.0830034,0.536491
0.201823,0.0739395,0.502725
0.0806075,0.145406,0.584775
0.221287,0.0877077,0.512389
0.16974,-0.0478863,0.586948
0.0394977,-0.136626,0.477682
0.0744708,-0.165026,0.530862
0.0747985,-0.138467,0.541009
0.099866,-0.132372,0.529808
0.221269,0.0877804,0.511939
0.0678801,0.125136,0.594771
0.216255,0.149552,0.523378
0.364109,-0.288857,0.982134
0.0552364,0.106779,0.613007
0.106101,-0.075847,0.539824
0.150511,0.134588,0.560927
0.061764,-0.159804,0.536868
0.158208,-0.138201,0.553121
0.0430772,-0.145125,0.515079
0.0423135,0.149181,0.6293
0.412884,-0.326129,1.10112
0.0640991,0.119506,0.690699
0.0340627,0.0927363,0.576705
0.142307,-0.139512,0.547984
0.157904,-0.0386796,0.548944
-0.125042,-0.301899,0.966719
0.116555,-0.217815,1.18552
0.0916859,0.014536,1.18029
0.211891,0.149281,0.523304
0.480802,-0.165473,1.11259
0.115364,-0.0722411,0.535917
0.488255,-0.248751,1.09684
0.0818998,-0.135379,0.532954
0.201107,0.143722,0.509874
0.105158,-0.133745,0.527188
0.0839523,-0.161528,0.531203
0.116765,-0.155421,0.523279
0.115287,-0.111797,0.530931
0.118596,-0.106335,0.531514
0.147401,0.139562,0.544257
0.146618,0.130884,0.550214
0.103621,-0.0736319,0.539781
0.0837524,-0.144038,0.53531
0.0848101,-0.16109,0.527527
0.13732,-0.140163,0.518928
-0.0717481,0.0356128,1.26645
-0.0243005,-0.3556,1.44602
0.0847073,0.0282189,1.18041
0.0662448,0.0937046,0.584106
0.094057,-0.334027,1.17298
0.127877,0.0121915,1.17892
0.0498133,-0.222247,1.20684
0.741867,-0.147322,1.00576
0.597894,-0.0306517,0.75071
0.239205,0.0665752,0.413592
0.817044,-0.301778,1.01296
0.813143,-0.309585,1.01116
0.655755,0.0239786,0.944351
0.323318,0.0557848,0.457947
0.0369811,0.122445,0.585471
0.262881,0.0440942,0.438696
0.0455961,0.122897,0.581437
0.267571,0.061958,0.422726
0.097219,-0.0993233,0.536425
0.0498824,0.126633,0.574583
0.07978,-0.109329,0.618881
0.107518,-0.11304,0.533326
0.268251,0.0731073,0.434931
0.0834271,-0.135655,0.533766
0.137614,-0.131184,0.521206
0.276423,0.100354,0.543899
0.222344,0.10473,0.520099
0.861213,-0.0115145,0.827267
1.05319,-0.264749,0.970501
0.27931,0.0767089,0.441353
0.813652,-0.0110165,0.801924
0.801732,-0.0443008,1.07781
-0.175701,-0.267178,1.25244
0.0800854,-0.161367,0.609738
0.89489,-0.376706,1.26639
0.111006,-0.111876,0.531733
0.407928,-0.320161,1.10247
0.119591,-0.106337,0.532329
-0.00607642,0.0366209,1.24377
0.0360223,0.0991056,0.613969
-0.0114709,-0.301721,1.21698
0.0961857,-0.340992,1.18763
0.0275381,-0.219988,1.20726
0.248794,0.054471,0.462928
0.095307,-0.33791,1.17707
0.48465,-0.191575,1.10453
0.552047,-0.202867,1.09366
0.707565,-0.306873,1.01981
0.881423,-0.00644888,0.834993
0.278791,0.0771584,0.490145
0.619051,0.014511,0.762993
0.0832697,-0.163217,0.61825
0.0617451,0.103192,0.589776
0.828781,-0.378399,1.28086
0.0697393,0.103978,0.58838
0.637653,-0.0409307,1.06444
0.616141,-0.06352,1.00058
0.510707,-0.166619,1.10365
0.0524652,0.106258,0.61838
0.745394,-0.285183,1.03571
0.746226,-0.273679,1.03793
0.48424,-0.324112,1.09177
0.0942533,-0.153489,0.530717
0.046926,0.114175,0.600931
0.745503,-0.273633,1.03576
0.608253,-0.0317416,0.754809
0.661172,-0.126203,1.0367
0.477621,-0.276085,1.09515
0.560314,-0.165356,1.09571
0.66939,-0.318224,1.09109
0.66359,-0.106431,1.02302
0.111405,-0.154215,0.51983
0.523821,-0.351453,1.12872
0.103889,-0.0740364,0.539389
-0.101921,-0.30816,1.23736
0.288308,0.065651,0.436288
0.0606724,0.101892,0.588352
0.0798751,-0.108544,0.616943
0.14601,0.129617,0.544949
0.060838,0.103427,0.59598
0.280953,0.0659662,0.433895
0.261381,0.0435011,0.437064
0.268979,0.0631776,0.42377
0.607106,-0.299537,1.06312
0.556776,-0.191385,1.09107
0.556035,-0.204099,1.0902
0.0734029,-0.129681,0.535922
0.605056,-0.300171,1.05962
0.506379,-0.169208,1.10374
0.640715,-0.069826,1.06204
0.521949,-0.212017,1.09298
0.26441,0.101794,0.56573
0.610353,-0.286336,1.06794
0.611983,-0.320513,1.0652
0.0354782,0.0986835,0.61234
0.250756,0.0975231,0.544899
0.614197,-0.291888,1.07042
0.0394572,0.109563,0.608742
0.135107,-0.131965,0.524366
0.661461,-0.120192,1.03261
0.607027,-0.306555,1.06362
0.629846,-0.171712,1.07817
0.635436,-0.0700148,1.06001
0.629214,-0.227682,1.07386
0.609362,-0.300494,1.06687
0.0396929,0.12847,0.610117
0.610182,-0.3118,1.06642
0.608584,-0.312028,1.06342
0.110079,-0.144546,0.521408
0.0962995,-0.332765,1.17537
0.277711,-0.00514825,1.19971
0.219997,-0.220494,1.16747
0.300701,-0.101418,1.17628
0.845227,-0.167101,0.99517
0.863838,-0.165541,0.979526
0.30545,0.16303,0.402821
0.273388,0.0747123,0.437841
0.321716,0.0549657,0.457968
0.247147,0.0514259,0.484971
0.267895,0.0445023,0.44128
0.222841,0.10836,0.515194
0.260985,0.0577404,0.452365
0.707899,-0.285661,1.04795
0.0468939,0.126579,0.575707
0.0482927,0.12752,0.579886
0.610207,-0.283486,1.06739
0.619897,-0.168211,1.05322
-0.431189,-0.130133,0.980991
-0.416703,-0.245505,1.05033
0.906995,-0.283219,1.00543
0.609398,-0.281681,1.06853
0.825817,-0.0476754,0.951896
0.825771,-0.0500471,0.976074
0.102598,-0.14144,0.528403
0.341937,0.0464113,0.459446
0.81182,-0.373423,1.26628
0.615701,-0.317055,1.09858
0.842782,-0.166729,0.993963
0.506616,-0.335246,1.09314
0.226294,0.0138698,0.662456
0.10507,-0.0737352,0.538323
0.111021,-0.137252,0.526349
0.116424,-0.154786,0.522316
0.0371392,0.104394,0.624465
0.116047,-0.0945586,0.534167
0.110737,-0.075966,0.53606
0.60971,-0.296761,1.06566
0.114704,-0.11242,0.530723
0.0563543,0.0988655,0.57484
0.990216,0.0715684,1.03017
0.362735,0.105729,0.432967
0.358874,0.071999,0.433664
0.861802,0.0020184,0.819314
0.806061,-0.0345914,0.787314
0.580691,0.0268169,0.904172
0.754163,0.0192996,0.744387
0.795598,-0.000183499,0.770579
0.0889813,-0.204228,1.20096
0.0790128,0.135966,0.567079
0.741304,-0.00663615,0.826387
0.0987478,-0.0945095,0.536707
0.845884,-0.167305,0.997943
0.475998,-0.27854,1.09654
0.818714,-0.375386,1.27211
0.124082,-0.164494,0.51761
0.0501767,0.12052,0.575085
0.620481,-0.0462784,0.952213
0.713278,-0.282764,1.04736
0.663906,-0.150467,1.02476
0.662721,-0.130785,1.03297
0.625961,-0.0403653,0.958293
0.0556247,0.107761,0.622821
0.556155,-0.168903,1.09584
0.587862,-0.0403525,1.11067
0.718358,-0.0110376,0.814415
0.0981666,-0.103117,0.53561
0.617923,-0.04332,0.949131
0.117291,-0.15347,0.521428
0.104738,-0.34708,1.20403
0.600456,-0.0391279,0.763683
0.119416,-0.349744,1.173
0.800458,-0.048935,0.802059
0.166195,0.0064573,0.556733
0.71744,0.0160583,0.778366
0.321075,0.0558505,0.457049
0.108817,-0.155851,0.525333
0.796851,-0.0646788,0.944244
0.722245,-0.00674044,0.812568
0.690633,-0.0414737,0.769244
0.259324,0.028469,0.43821
0.69531,0.0161642,0.811243
0.133248,0.00667464,0.505068
0.290071,0.0661206,0.427612
0.617582,-0.036821,0.951302
0.095806,-0.106762,0.538199
0.0530606,0.109175,0.619636
0.784342,0.0177182,0.823629
0.0739628,-0.128653,0.535389
0.791051,0.00707718,0.817905
0.722416,0.0114575,0.867053
0.315948,0.102468,0.420625
0.137538,-0.13728,0.520609
0.820483,-0.299746,1.01717
0.817087,-0.307153,1.01133
0.632201,-0.168849,1.04605
0.606639,-0.0409412,0.936083
0.822129,-0.281853,1.01849
0.843495,-0.38922,1.30501
0.779684,-0.285893,0.976209
0.821578,-0.283577,1.01539
0.293418,0.053954,0.439412
-0.431357,-0.159265,0.976795
-0.327098,0.0169179,0.834275
-0.338878,0.0196117,0.877428
0.538738,0.0399977,1.12953
0.304549,0.0889434,0.39343
0.966174,-0.133701,0.997636
0.282385,0.066602,0.434769
0.255141,0.0846862,0.376815
0.0736376,0.119642,0.580122
0.11212,-0.0738452,0.536258
0.106576,-0.1128,0.53183
0.0699137,0.115629,0.568084
0.0871792,0.0144253,0.62551
0.130601,0.00664828,0.503695
0.969781,-0.138501,0.997991
0.761603,-0.0901351,1.03478
0.600995,-0.282971,1.04463
0.21018,0.0763208,0.509284
0.577867,-0.0117648,0.717951
0.116443,-0.113773,0.531875
1.01717,-0.272544,0.975877
0.361308,0.0720737,0.434553
0.836803,-0.224667,1.00367
0.665903,-0.124811,1.0394
0.640587,0.0134255,0.784359
0.742943,-0.104954,1.00501
0.745824,-0.148004,1.00167
0.598808,-0.00977938,0.741898
0.706456,-0.075907,1.0468
0.0551562,0.10788,0.575258
0.322121,0.0546264,0.45858
0.643761,-0.225977,1.05475
0.663547,-0.104835,1.02672
0.633199,-0.168642,1.04918
0.138593,0.132431,0.550162
0.0685911,0.120494,0.584899
0.0443575,0.147521,0.611327
0.744208,-0.100134,1.00216
0.609972,-0.351914,1.06008
0.694863,-0.252851,1.05399
0.651536,-0.115692,1.06643
1.22765,-0.431001,1.38009
0.758076,-0.29139,1.03754
0.821757,-0.280161,1.01864
0.646154,-0.0690973,0.971998
0.537845,0.018074,0.814589
0.826321,-0.299975,1.02156
0.709325,-0.281889,1.04561
0.615009,0.028875,0.942528
0.816843,0.0111107,0.785702
0.0323652,0.110294,0.550899
0.106416,-0.154321,0.521215
0.0508879,0.108431,0.577914
0.718179,-0.308541,1.03428
0.306952,0.132022,0.410831
0.355602,0.0501922,0.434006
0.35402,0.0495682,0.431988
0.356017,0.0757245,0.434966
0.303687,0.132223,0.409999
0.822011,-0.0248969,0.79692
0.792003,0.00626407,0.818769
0.784636,-0.0390559,0.78657
0.845753,0.0304621,0.897194
0.822595,-0.0266246,0.794925
0.681723,-0.249842,1.02685
0.815717,-0.0505525,0.982881
0.967113,-0.277422,0.986301
0.746743,-0.00835959,0.738073
-0.447645,-0.117609,0.908622
0.571931,0.00641084,0.860468
0.537148,-0.000205248,0.799254
0.964868,-0.361545,1.15587
0.724385,0.0179524,0.835757
0.188326,0.0073985,0.582088
0.803096,0.0254686,0.870816
0.0712047,-0.138785,0.530458
0.799453,-0.0642401,0.947144
0.835726,-0.250468,1.0171
0.78557,0.0163066,0.80982
0.11598,-0.0942798,0.532189
0.762622,0.00198135,0.79654
0.756143,0.00266857,0.789322
0.554582,0.0193388,0.853024
-0.326333,0.121094,0.844992
-0.47156,-0.170927,0.790352
-0.237419,-0.26704,1.17505
-0.48772,0.0529897,0.625362
0.222361,0.119585,0.516812
0.814282,-0.0230914,0.78318
0.764392,-0.0292769,0.790845
0.289704,0.0653069,0.428774
0.651459,0.0309778,1.05965
0.901285,-0.346863,1.08948
-0.467575,-0.179048,0.784547
-0.426924,-0.00417549,0.794859
0.059378,-0.205009,1.20264
0.29828,-0.133741,1.1691
0.742737,-0.102814,1.00397
0.694062,-0.252964,1.05465
0.277246,0.101912,0.549873
0.7838,0.0172826,0.826227
0.105095,-0.134335,0.532433
0.0903329,-0.170533,0.631354
0.0557755,0.103206,0.614305
0.810256,0.0567332,0.879283
0.354598,0.0494279,0.432917
0.702287,-0.00927744,0.7964
0.753497,-0.0121223,0.839091
0.0378475,0.0944079,0.563705
0.698483,-0.0446169,0.780426
0.263627,0.0232615,0.44209
0.202023,0.143029,0.510283
0.0896128,-0.148988,0.527257
-0.547869,-0.0483046,0.491548
-0.544513,-0.0173504,0.49278
0.303584,0.0404572,0.437128
0.61311,-0.0093703,0.756263
0.934435,-0.117441,1.04227
0.847514,-0.0528309,0.8767
1.00728,-0.363614,1.17542
0.604547,-0.310664,1.05975
0.0411657,0.0974735,0.576728
0.621799,0.057968,0.963158
0.620624,-0.0666172,1.00792
0.792918,0.0236864,0.863217
0.107399,-0.112863,0.533228
0.626564,0.0563752,0.968486
0.70692,-0.312047,1.05249
0.239173,-0.203063,1.15851
0.280022,-0.227777,1.16195
0.0800661,-0.135422,0.532493
0.283722,-0.0198394,1.19252
0.0322721,0.114855,0.549525
0.728787,-0.0117473,0.72195
0.790394,0.0135119,0.807613
0.534386,0.00178161,0.795803
0.790391,0.0242777,0.860668
0.872919,-0.37143,1.24333
0.16415,-0.0117971,0.560298
0.0809127,-0.135549,0.556611
0.579818,0.0331365,0.970965
0.649305,-0.0379698,0.787507
0.657521,0.0313557,1.02817
0.752534,-0.0383506,0.774454
0.688769,-0.0358428,0.782086
0.613727,-0.0349524,0.751509
0.0720431,-0.139657,0.53351
0.232104,0.0428815,0.46468
0.811219,0.0161513,0.826568
0.594848,0.031642,0.917485
0.967263,-0.276878,0.986472
1.06222,-0.135984,0.989579
0.57402,0.00508769,0.855144
-0.303031,0.0390598,0.765359
0.967784,-0.349529,1.13607
0.115838,-0.144509,0.525086
0.0574694,0.0961695,0.592644
-0.373264,0.0453102,0.584374
0.608607,0.0301588,0.953689
0.665411,-0.10112,1.02773
0.250246,0.0569854,0.480136
0.825292,-0.0502569,0.969717
0.0926435,-0.155433,0.660318
0.192929,-0.322697,1.15474
0.725493,-0.360453,1.06108
0.213783,-0.0176634,1.1939
0.810939,-0.00689831,0.776988
0.816067,-0.0346598,0.793616
0.535703,0.00234066,0.797223
0.738121,-0.107947,0.996733
0.0989645,-0.106523,0.536768
0.624264,-0.222598,1.04892
0.0536436,0.126736,0.596973
0.0858757,-0.16592,0.616707
0.114531,-0.146466,0.527822
0.971824,-0.135402,1.00186
0.29624,0.05016,0.503483
0.726721,-0.0629853,0.973295
0.14826,-0.142729,0.524658
0.256762,0.0601519,0.490723
0.0423357,0.100957,0.549357
0.880424,0.0218368,0.834111
0.846262,-0.00644634,0.82345
0.84767,-0.0537468,0.883871
0.146002,0.00803423,0.530117
0.574332,0.00637327,0.863191
0.605954,0.0301543,0.950948
0.214138,0.0395381,1.20773
0.276255,-0.0146408,1.19345
-0.456079,-0.176111,0.770401
-0.550274,-0.0971239,0.434065
-0.545466,-0.0671338,0.489405
-0.542114,0.0144301,0.481432
-0.44985,-0.0532764,0.753067
-0.101835,-0.273607,1.23242
0.0920843,0.0488437,1.18997
-0.0215444,-0.544525,2.16601
-0.0035715,-0.27648,1.20658
0.242256,-0.206327,1.16372
1.01317,-0.154091,0.986257
0.116254,-0.102998,0.528369
-0.433404,-0.153892,0.972151
-0.376129,0.0527139,0.60164
-0.326029,0.119132,0.842302
0.629135,0.0181921,0.774122
0.213257,-0.0876029,1.18891
0.106066,-0.110603,0.531178
0.9684,-0.132008,1.0007
0.102445,0.0592597,1.18747
0.864823,-0.115559,1.02426
0.104412,-0.152877,0.525577
0.215288,0.0389936,1.20554
1.03807,-0.326661,0.96542
-0.21973,-0.273379,1.25542
-0.114976,-0.299279,1.2374
0.285079,-0.167204,1.15308
0.508531,0.0168685,0.784754
0.223483,0.0464172,1.20364
0.883846,-0.00511488,0.837195
0.832487,0.0207291,0.796997
0.0555628,0.099469,0.605963
0.65073,0.0321429,1.07529
-0.43775,-0.13132,0.972487
0.559529,0.0166593,0.862406
0.305816,0.0830772,0.4697
0.564511,0.02909,0.878947
0.55965,0.0144733,0.888966
-0.0998518,-0.299174,1.23903
-0.488208,-0.159278,0.655464
-0.460725,0.151847,0.622848
-0.46205,-0.184556,0.831809
-0.298542,0.0188867,0.934904
-0.486351,0.145954,0.653799
0.0914855,-0.212282,1.18348
0.0688901,0.105003,0.629978
0.263092,0.0581239,0.453567
0.258867,0.0474186,0.49133
0.0852592,0.0148925,0.618896
0.289783,-0.162824,1.15743
0.0569284,-0.210982,1.1999
-0.447993,-0.140968,0.911594
0.0602897,-0.204457,1.20189
0.192041,-0.325137,1.15436
-0.286056,0.101451,0.523913
-0.375951,-0.0968684,1.1946
0.814388,-0.0502074,0.98114
0.626394,0.0610886,0.969654
-0.346032,0.0840383,0.572021
-0.379648,0.0523687,0.600597
-0.429812,-0.129518,0.981869
-0.415528,-0.202938,1.0496
-0.427535,-0.0647454,0.833746
-0.583534,-0.0472656,0.217574
-0.579308,-0.00971314,0.337662
-0.227963,-0.283262,1.17506
-0.324449,0.0505819,0.836796
-0.292139,0.0955864,0.521634
-0.34808,0.0132473,0.880736
-0.391874,0.0191121,0.70636
-0.277318,0.0839635,0.593459
-0.444733,-0.123607,0.920982
-0.547476,-0.060935,0.490196
0.904479,-0.228903,1.01269
0.040138,-0.204513,1.20657
0.611546,-0.0426199,0.944194
0.619148,0.0296811,0.965007
0.065985,-0.136371,0.519126
0.12966,0.0578289,1.19456
-0.455795,0.00121482,0.685369
-0.469993,-0.162086,0.763503
-0.411625,-0.107968,1.0624
0.0454932,0.13666,0.635664
-0.402024,0.03128,0.68975
-0.0817593,-0.214402,1.20684
-0.21039,0.0385013,1.30359
-0.148602,-0.282596,1.22661
0.00482691,0.0364614,1.24422
-0.447777,-0.119892,0.908835
0.626876,-0.175113,1.06025
0.707488,-0.3069,1.04875
-0.299442,-0.0209549,0.938792
0.410544,0.0429302,1.16404
-0.4476,-0.117469,0.826701
-0.306771,-0.345103,1.27185
0.641895,-0.0660593,0.976492
-0.443577,-0.125049,0.930827
0.0821059,-0.163163,0.608905
1.12203,-0.750564,2.43676
-0.308394,0.110821,0.542295
-0.434761,0.018996,0.708799
0.021036,-0.206353,1.21305
-0.21636,-0.300211,1.25349
-0.483792,0.0493205,0.59447
-0.277403,0.07725,0.592509
0.200939,-0.21509,1.17419
0.200634,-0.214208,1.17247
0.276795,-0.171704,1.16826
0.275913,-0.0183725,1.20752
0.286893,-0.00109435,1.19543
0.0430953,0.127935,0.605992
-0.1046,-0.287826,1.22952
-0.0310249,-0.368639,1.45042
-0.377031,-0.000715756,0.942034
-0.0845385,-0.244511,1.22511
-0.433033,-0.158525,0.975308
-0.546252,0.0070577,0.49595
-0.295604,0.0347488,0.925354
-0.3759,-0.0187486,0.960232
-0.37949,-0.0275703,0.993653
-0.396806,0.010111,0.791698
-0.225378,-0.28515,1.21569
-0.470922,-0.143272,0.803692
0.0198828,-0.2121,1.21074
-0.217839,-0.341622,1.24143
-0.282249,0.0746981,0.566652
-0.209163,-0.0764207,0.894533
-0.400655,0.0130866,0.631377
-0.327899,0.0504621,0.846361
-0.438067,-0.150491,0.975887
-0.376964,-0.279359,1.23525
0.479835,-0.24833,1.10281
-0.00727946,-0.323859,1.39203
-0.443829,0.00102852,0.761925
-0.435905,-0.157716,0.959296
-0.420598,-0.000374399,0.822246
-0.0662887,-0.467275,1.83769
-0.176614,-0.277177,1.24386
-0.243979,-0.165149,1.26726
-0.297616,0.117757,0.878403
-0.458573,-0.101102,0.82783
-0.381164,0.120355,0.895965
-0.447173,-0.127464,0.914514
-0.282957,0.100128,0.523888
-0.26653,0.101712,0.533719
-0.263195,0.101929,0.54259
-0.297315,0.0837423,0.490207
-0.235304,0.110058,0.579698
-0.254901,0.107129,0.551198
-0.00206843,-0.322639,1.30017
-0.544338,-0.087761,0.48341
-0.582886,-0.0191302,0.50782
-0.444615,-0.149535,0.94112
-0.552557,-0.101087,0.485834
-0.375649,0.0559738,0.612658
-0.545118,-0.0727473,0.48849
-0.545761,-0.0359938,0.49132
-0.442435,0.09894,1.00052
0.26309,-0.0205629,1.18547
-0.41506,-0.188059,1.05118
-0.449116,-0.147966,0.905481
-0.4205,0.0114898,0.800857
-0.225932,0.0354062,1.25638
-0.00281332,-0.307416,1.20864
-0.447979,0.0854703,0.850344
-0.461493,-0.174658,0.773225
-0.569557,-0.00658012,0.503843
-0.373563,0.041656,0.585494
-0.24113,0.0901379,0.559513
-0.432291,-0.136569,0.975311
-0.415901,-0.00968946,0.834865
-0.377759,0.00535364,0.948778
-0.317474,0.103487,0.645053
-0.446597,-0.129262,0.915156
-0.357221,0.0896043,0.529649
-0.436821,0.00424989,0.789108
-0.381623,0.0526735,0.624162
-0.263834,0.0298304,0.582673
0.291897,-0.167793,1.15599
-0.380981,0.0168093,0.723349
-0.136734,-0.257399,1.23783
-0.38563,0.0480837,0.575311
0.421008,0.0389438,1.16076
-0.46161,0.0160375,0.722274
-0.448332,-0.141262,0.910456
-0.46097,0.0153486,0.723444
-0.489409,0.0880466,0.536633
-0.265282,0.0087334,0.58882
-0.449204,-0.148862,0.90576
-0.469196,-0.161788,0.790578
-0.377016,0.0540004,0.606261
-0.423649,-0.000579594,0.745626
-0.284155,0.0723757,0.572465
0.222771,0.0432444,1.20499
-0.462705,-0.0892407,0.813517
-0.402697,0.025347,0.622776
-0.465285,-0.163207,0.80142
-0.324201,0.0975401,0.512749
-0.270729,0.109632,0.534341
-0.324087,0.0946497,0.498996
-0.269156,0.105287,0.537716
-0.181952,-0.332446,1.38281
-0.429747,-0.157716,1.09192
-0.283289,0.072855,0.574742
-0.487555,0.0529682,0.62674
-0.376449,0.0568356,0.896786
-0.275009,0.0807389,0.59258
-0.194409,-0.31474,1.34227
-0.428458,-0.172019,1.0362
0.233844,-0.0114567,1.20354
-0.484129,-0.162841,0.701959
-0.445374,-0.148075,0.930692
-0.483671,0.209462,0.68272
-0.332184,0.174809,0.526577
-0.587008,-0.00197306,0.511722
-0.491305,-0.0942002,0.428613
-0.323965,0.10403,0.523563
-0.34657,0.10517,0.530943
-0.211126,-0.334451,1.39712
-0.435553,-0.151597,0.976187
-0.429342,-0.00376955,0.688175
-0.264702,0.0495585,0.49762
-0.391258,0.0285233,0.670209
-0.260936,0.0883828,0.53831
-0.304357,-0.02501,0.929657
-0.369774,0.0469496,0.595095
-0.472531,-0.173028,0.808637
-0.291499,-0.104143,1.26319
-0.412204,-0.0970243,1.06546
-0.561049,-0.0611615,0.492341
-0.549,-0.0761305,0.489761
-0.562985,-0.0803807,0.491899
-0.573689,-0.0259776,0.504381
-0.255776,0.0871073,0.610392
-0.30413,0.107099,0.534139
-0.278108,0.0813831,0.513418
-0.261379,0.0960928,0.543045
0.049583,-0.330637,1.31592
-0.443371,-0.133996,0.914734
0.0966715,-0.218341,1.18883
-0.45122,-0.257088,1.21183
-0.378476,-0.079948,1.21062
-0.498056,0.0473665,0.618293
-0.449073,-0.0526882,0.751574
-0.488904,0.0531616,0.626721
-0.268298,0.0962702,0.53109
-0.427038,0.123353,0.867836
-0.410253,-0.0109981,0.710543
-0.0183098,-0.245436,1.21255
-0.273888,0.0984787,0.523504
-0.459389,-0.0758619,0.640507
-0.317406,0.102784,0.645137
-0.383988,0.0441761,0.904599
-0.291437,0.139918,0.562954
-0.432743,-0.158026,0.97426
-0.284451,0.110276,0.566807
-0.342665,0.103695,0.553675
-0.346843,0.0999563,0.54437
-0.070035,0.0364785,1.27369
0.132882,0.0105855,1.18437
-0.310589,0.111884,0.551856
-0.301591,0.0602058,0.54461
-0.434032,-0.00326992,0.860514
-0.460765,-0.18009,0.862961
0.478673,-0.248606,1.1003
-0.181958,-0.366649,1.50866
-0.497199,0.0440671,0.619689
-0.289197,0.0745384,0.564977
-0.0735171,0.0335797,1.26894
-0.48825,0.0833369,0.526349
-0.480846,0.0698175,0.510251
-0.443195,-0.139642,0.908528
-0.419254,-0.0128169,0.83424
-0.250993,0.0420425,0.521672
-0.488476,0.0489158,0.614112
-0.423781,0.110356,0.876643
-0.429487,0.00191291,0.807609
-0.497906,0.150913,0.648783
-0.381726,0.0526402,0.602888
-0.339512,0.0929358,0.55032
-0.284099,0.101331,0.524739
-0.271239,0.0791024,0.58566
-0.00418214,-0.290433,1.20632
-0.331356,0.0308407,0.853698
-0.442898,-0.00272908,0.615555
-0.275721,0.10661,0.528129
-0.273369,0.0907788,0.523272
0.388984,-0.229768,1.13849
-0.311978,0.106795,0.521293
-0.306695,0.129672,0.535477
-0.420897,0.0569635,0.662106
-0.356092,0.016747,0.672594
-0.177342,-0.336324,1.39559
-0.285299,0.0275204,0.908298
-0.420686,0.110597,0.666036
-0.460907,-0.177662,0.747981
-0.323414,0.0231335,0.826582
-0.482856,0.161637,0.643927
-0.365001,0.0322433,0.914924
-0.331824,0.0564089,0.876635
-0.465462,-0.173575,0.826273
-0.38633,0.063099,0.469684
-0.555245,-0.0942066,0.487781
-0.342851,0.104249,0.528264
-0.320951,0.106337,0.534563
-0.305296,0.130551,0.538313
-0.243513,0.0907579,0.550986
-0.000543195,-0.303945,1.20561
-0.36126,0.0901535,0.508144
-0.326861,0.0987572,0.510035
-0.404904,-0.010832,0.74737
-0.455185,0.00140756,0.691782
-0.100184,-0.279871,1.23524
-0.32068,0.106776,0.53598
-0.361137,0.0732534,0.89148
-0.289376,0.0747146,0.55667
-0.257645,-0.277867,1.18949
-0.298143,-0.0164101,0.94407
-0.361678,0.0942455,0.588095
-0.556089,0.0253402,0.487992
-0.547206,-0.0296793,0.492556
-0.265763,0.070696,0.589344
-0.544964,-0.0230721,0.492302
-0.544091,-0.0107758,0.492616
-0.361992,0.0518387,0.882546
-0.40876,-0.0263711,1.08631
-0.433023,-0.207359,1.19564
-0.360869,0.0465829,0.624343
-0.375043,0.0697542,0.867454
-0.367071,0.0385924,0.88416
-0.489668,0.145506,0.641173
-0.303324,-0.221196,1.28263
-0.577511,-0.0936357,0.369086
-0.249681,0.0885412,0.540203
-0.101594,-0.024681,1.04235
-0.329293,0.0945066,0.613534
-0.399327,0.0133657,0.646891
-0.260327,0.115426,0.549406
-0.370643,0.0146495,0.616182
-0.341003,0.101649,0.568481
-0.490621,0.147826,0.657397
-0.463042,-0.180535,0.827642
-0.388017,0.10035,0.613079
-0.382972,0.0973598,0.620299
-0.502256,-0.151996,0.626547
-0.365223,0.0686697,0.93771
-0.502467,-0.150645,0.616661
-0.235249,-0.241628,1.26132
-0.429143,0.00257146,0.805785
-0.580394,0.0176443,0.509885
-0.545379,-0.0416816,0.490912
-0.601362,0.00266705,0.509527
-0.269142,0.0537251,0.511077
-0.262015,0.04829,0.493639
-0.484261,0.142511,0.648285
-0.534724,0.185258,0.506307
-0.104159,-0.14994,1.14482
-0.311278,0.106807,0.523359
-0.390875,0.0473335,0.587995
-0.418552,0.0540599,0.644107
-0.422937,0.0503643,0.616238
-0.456708,-0.179558,0.716851
-0.565283,-0.0997941,0.451935
-0.299298,0.118111,0.88092
-0.322901,0.0987701,0.516279
-0.300874,-0.0207433,0.955745
-0.34975,0.0449451,1.32992
-0.364065,0.0248892,0.918777
-0.431547,-0.131541,0.97581
-0.518247,-0.0949467,0.429322
-0.578813,-0.102113,0.478272
-0.279142,0.0814702,0.515653
-0.425372,0.0525948,0.631623
-0.359971,-0.00149575,0.692795
-0.403198,0.0666215,0.733675
0.388379,-0.283358,1.11487
2.77012,-0.705577,4.29756
-0.312881,0.101749,0.518598
-0.236366,0.149504,0.849216
-0.458783,-0.0382493,0.608006
-0.585511,0.100029,0.0983467
-0.266845,0.173161,0.530928
-0.851997,-0.0975148,0.44136
-0.540829,0.0295168,0.361653
-0.602094,-0.0530649,0.357632
-0.541186,-0.0371306,0.47772
0.0496673,-0.220328,1.20185
-0.459073,-0.193139,0.894935
-0.427701,-0.17622,1.10135
-0.328007,0.105482,0.526906
-0.322221,0.104893,0.517246
-0.327108,0.103043,0.52248
-0.269855,0.0861204,0.521906
-0.0566731,-0.348529,1.38436
-0.369586,-0.124193,1.25203
-0.040058,-0.297002,1.21924
-0.460903,0.120587,0.799832
-0.396438,0.105034,0.621088
-0.36389,0.0332492,0.844538
-0.550323,-0.00709081,0.491781
-0.307098,0.047994,0.819913
-0.458761,0.0197848,0.717094
-0.54517,-0.00485284,0.494135
-0.545865,-0.0486804,0.490442
-0.279657,0.0778527,0.583994
0.0115136,-0.331623,1.33347
-0.323218,0.0169166,0.793509
-0.421582,0.24561,0.124801
-0.487967,0.239267,0.112553
-0.511168,0.247001,0.103682
-0.328585,0.0245644,0.846421
-0.460878,-0.170434,0.745068
-0.333255,0.134376,0.60736
-0.39817,0.044815,0.840676
-0.318869,0.118924,0.826357
-0.44865,-0.126617,0.91452
-0.581929,0.0012943,0.508595
-0.46732,0.120554,0.821793
-0.340113,0.0146045,0.865085
-0.280167,0.102797,0.594346
-0.376748,0.0833701,0.611958
-0.347507,0.0392034,0.550067
-0.394556,0.0100277,0.425508
-0.61475,0.18852,0.118336
-0.295353,0.0703972,0.541358
-0.443506,-0.145361,0.91312
-0.272106,0.0869263,0.523986
-0.359731,0.073974,0.884509
-0.377166,0.0735778,0.976265
-0.174858,-0.264631,1.24475
-0.434604,-0.150935,0.976368
-0.314894,-0.295697,0.973792
-0.38796,0.030818,0.801489
-0.572188,-0.0648916,0.495951
-0.432509,0.0139143,0.786324
-0.547306,-0.0787294,0.489445
-0.543668,0.0137357,0.49443
-0.472045,-0.0971401,0.816168
-0.298678,0.116134,0.88042
-0.380714,0.0432792,0.887348
-0.548654,-0.0420352,0.492325
-0.547611,-0.0792161,0.489105
-0.418134,0.0922531,0.960724
-0.312831,0.0797457,0.593549
-0.295345,0.0350315,0.922704
-0.336866,0.0487055,0.840041
-0.581162,0.0285991,0.50719
-0.555811,-0.0671116,0.493636
-0.298036,0.0870346,0.63515
-0.460681,-0.171643,0.748486
-0.387465,0.126178,0.632414
-0.461761,-0.102325,0.833099
-0.383889,0.125038,0.6192
-0.388657,0.0763729,0.892942
-0.439338,-0.152173,0.957195
-0.581952,-0.0464122,0.33538
-0.583447,-0.0596124,0.334295
-0.434794,0.124369,0.880363
-0.492819,0.146935,0.643311
-0.310992,0.0556524,0.572383
-0.43822,0.00499947,0.791703
-0.500783,-0.149162,0.548337
-0.29915,-0.165074,1.28642
-0.427716,0.103413,0.872353
-0.438475,0.108892,0.871463
-0.338251,0.100667,0.524415
-0.333626,0.0496567,0.858973
-0.328655,0.0133068,0.83232
-0.539163,-0.0112672,0.480785
-0.615343,0.0189542,0.395782
-0.546847,-0.00460784,0.494487
-0.551254,0.0259606,0.456008
-0.354999,0.0272922,0.935576
-0.488325,0.0538837,0.636297
-0.600013,0.24079,0.180942
-0.424666,0.122926,0.866015
-0.487998,-0.164262,0.705856
-0.435906,-0.128595,0.954798
-0.306116,0.045239,0.942096
-0.338325,0.103159,0.523673
-0.46654,0.155436,0.629492
-0.44148,-0.15515,0.974588
-0.482435,-0.162744,0.70239
-0.569134,-0.026081,0.49771
-0.549331,-0.100888,0.486391
-0.275527,0.082838,0.590763
-0.557643,-0.00998994,0.498933
-0.454012,-0.156283,0.694483
-0.586573,0.00491893,0.511587
-0.548852,0.0210455,0.497265
-0.546859,0.0239656,0.493552
-0.608653,0.00629608,0.0801972
-0.573382,0.0294862,0.426803
-0.427345,-0.0037954,0.796252
-0.55946,-0.087001,0.479909
-0.481202,0.157726,0.642254
-0.403471,0.0304385,0.687975
-0.548486,-0.0920952,0.488241
-0.499249,0.16093,0.648712
-0.384537,0.0969478,0.623588
-0.560139,-0.0992055,0.113335
-0.613914,0.0478506,0.0822331
-0.580886,-0.00882888,0.504489
-0.374882,0.0423741,0.87487
-0.334641,0.025724,0.830134
-0.546948,-0.0667991,0.489589
-0.390464,0.111858,0.628294
-0.505239,-0.141253,0.55081
-0.491861,0.143422,0.623273
-0.373978,0.0429959,0.875436
-0.483844,-0.160817,0.692476
-0.45452,-0.18409,0.740546
-0.474854,-0.16201,0.684236
-0.474331,-0.167441,0.714804
-0.270692,0.0490276,0.516764
-0.290487,0.096846,0.522183
-0.376641,0.0589612,0.9022
-0.431042,0.0190821,0.71388
-0.286957,0.105345,0.931418
-0.440301,-0.149708,0.972338
-0.44155,0.0609648,0.862268
-0.333427,0.0145135,0.820058
-0.582135,0.0146329,0.510011
-0.543852,-0.0261124,0.490876
-0.557493,-0.0260412,0.493239
-0.298987,-0.165751,1.28522
-0.274221,0.0765325,0.592705
-0.480363,0.162037,0.639268
-0.303181,-0.244323,1.27747
-0.466942,-0.153851,0.794559
-0.432756,-0.158512,0.976976
-0.439589,-0.138747,0.975839
-0.373481,0.0695177,0.888325
-0.570529,-0.0286245,0.494785
-0.295497,0.042202,0.887753
-0.262958,0.0385649,0.51943
-0.537996,-0.062313,0.482329
-0.568289,-0.0456461,0.500728
-0.42994,-0.100113,0.984262
-0.46274,0.121703,0.801468
-0.41215,0.0500148,0.81117
-0.461341,-0.181772,0.72317
-0.330455,0.0144464,0.817697
-0.464379,-0.177748,0.708005
-0.523682,0.160989,0.601953
-0.359648,0.0895256,0.580763
-0.543958,0.0198407,0.495797
-0.315428,0.0496949,0.972465
-0.58056,-0.0783478,0.332898
-0.499687,-0.142158,0.842465
-0.370102,0.0208073,0.942347
-0.46011,-0.179235,0.82735
-0.394338,0.102651,0.636103
-0.611518,-0.00220888,0.352377
-0.572464,0.162641,0.201559
-0.329639,0.0619888,0.851771
-0.591902,-0.0343853,0.208822
-0.595225,-0.0996602,0.431648
-0.270681,0.0861839,0.519831
-0.580491,-0.0853626,0.498396
-0.265812,0.0716221,0.583748
-0.529324,-0.0268003,0.479103
-0.542928,-0.0845363,0.483567
-0.460209,-0.0906012,0.810385
-0.377564,-0.274933,1.22668
-0.583824,0.209442,0.740592
-0.378744,0.0728874,0.9073
-0.465474,-0.162059,0.798151
-0.461798,0.0164732,0.721471
-0.606185,0.00817973,0.364326
-0.536944,-0.0984849,0.460747
-0.502454,-0.146142,0.552323
-0.543434,-0.10033,0.477131
-0.316864,0.0583361,0.79402
-0.360325,0.0501115,0.875458
-0.274674,0.0942244,0.531414
-0.463122,-0.0930558,0.809934
-0.612032,0.22011,0.264085
-0.595064,-0.0449121,0.236214
-0.602205,-0.039882,0.254777
-0.302177,-0.244189,1.27118
-0.557894,0.0282383,0.43157
1.27347,-0.109395,0.570878
1.30908,-0.0563113,0.60768
-0.568193,-0.0296876,0.500939
-0.595296,-0.0816347,0.162123
-0.59925,-0.0648535,0.15862
-0.274471,0.0779924,0.494262
-0.384861,0.112392,0.615304
-0.252438,0.0328017,0.516983
-0.291309,0.0953287,0.611895
-0.371689,-0.00251517,0.926159
-0.43193,-0.0645507,0.833064
-0.592285,-0.0833325,0.396945
-0.461876,-0.176523,0.702671
-0.320167,0.104059,0.515463
-0.261701,0.0379759,0.518962
-0.554293,-0.0312261,0.485505
-0.544769,-0.018306,0.493442
-0.536983,0.186761,0.506849
-0.442046,0.00516613,0.800992
-0.567079,0.031391,0.39544
-0.441669,-0.142851,0.970446
-0.528722,-0.136561,0.536185
-0.544804,0.0215502,0.495255
-0.544052,0.00787977,0.494408
-0.376521,0.161465,0.616371
-0.319875,0.106371,0.514212
-0.387672,0.112159,0.618432
-0.558329,0.0277684,0.437901
-0.555459,-0.099519,0.45349
-0.581378,-0.00220593,0.348198
-0.570877,0.0307408,0.407993
-0.590791,-0.0532173,0.228881
-0.594326,-0.0203286,0.165111
-0.695102,0.216008,0.0945784
-0.575053,-0.0998511,0.108593
-0.676423,0.211243,0.0862184
-0.807254,0.254169,0.0616898
-0.555791,-0.0989035,0.110964
-0.59003,0.0527165,0.120706
-0.676196,0.220361,0.0850688
-0.429552,0.250316,0.122123
-0.532503,-0.0294378,0.476653
-0.589747,0.244451,0.11302
-0.360622,0.0270851,0.938643
-0.73678,0.0443827,0.485391
-0.302333,0.102064,0.533221
-0.579454,0.0323906,0.341459
-0.562255,-0.0552359,0.496977
-0.268923,0.0850367,0.522842
-0.532381,-0.097605,0.455079
-0.4566,-0.10361,0.824959
-0.518345,-0.0965894,0.125667
-0.591686,-0.0404656,0.161392
0.65925,-0.134395,1.03329
-0.615748,-0.00368808,0.163037
-0.596326,-0.0214762,0.156567
-0.332399,0.1748,0.52876
-0.366205,0.0410707,0.590026
-0.331751,0.134821,0.615161
-0.383644,0.0970337,0.62128
-0.380625,0.109117,0.61104
-0.445142,0.22017,0.125631
-0.60807,-0.0397273,0.102048
-0.718168,0.221945,0.0740451
-0.563824,0.196158,0.184623
-0.274726,0.0962305,0.518615
-0.605576,-0.0116292,0.517585
-0.555197,-0.0983344,0.49123
-0.265309,0.0393774,0.528713
-0.38842,0.10056,0.612144
-0.381618,0.108056,0.617966
-0.387455,0.111773,0.619608
-0.57769,0.00905479,0.337667
-0.611275,0.00905319,0.0794635
-0.594051,-0.0342982,0.0993492
-0.584507,-0.0786614,0.333373
-0.585071,-0.0904591,0.332848
-0.587644,-0.0905927,0.333268
-0.580249,-0.0403348,0.335637
-0.434478,0.0482667,0.852524
-0.581988,-0.018683,0.503778
-0.470901,-0.162199,1.01525
-0.379015,-0.0828882,1.21038
0.27684,-0.172616,1.16689
-0.603688,-0.0503668,0.25216
-0.499185,0.0261745,0.365019
-0.578322,0.0548147,0.128055
-0.579988,-0.0342997,0.335169
-0.377069,0.161917,0.619885
-0.578319,-0.0158256,0.336269
-0.616302,-0.000629904,0.15462
-0.638329,-0.032244,0.0836787
-0.27386,0.0514797,0.51781
-0.379202,0.0529431,0.600853
-0.491597,0.0186799,0.460399
-0.615407,-0.0975004,0.391337
-0.502134,-0.142738,0.548994
-0.538664,-0.088879,0.338288
-0.546283,0.0302102,0.35628
-0.333236,0.163243,0.609339
-0.515545,-0.094683,0.421375
-0.275442,0.094593,0.522573
-0.571713,-0.0973334,0.425346
-0.598535,-0.0963956,0.397576
-0.499803,-0.144833,0.549691
-0.285879,0.0771302,0.523219
-0.596261,-0.0670173,0.38012
-0.543867,-0.0270173,0.491092
-0.37774,0.157163,0.618087
-0.379049,0.0554174,0.601621
-0.60632,-0.0475419,0.247459
-0.546888,-0.085669,0.488297
-0.579213,-0.0417227,0.229827
-0.574151,-0.0916643,0.350573
-0.578089,0.015161,0.338595
-0.569118,0.0308101,0.401383
-0.592944,0.165834,0.197389
-0.582802,-0.0651655,0.333423
-0.578206,0.0111655,0.399906
